21.6492 145.235 1317.52 0.464512 0.667657 -0.581776
43.7392 133.435 1274.21 0.833602 0.507241 -0.218663
45.0023 152.993 1286.74 0.192516 0.80173 -0.565833
-26.9913 139.686 1289.19 -0.639999 -0.0659096 -0.765544
37.3434 127 1281.05 0.595469 -0.658738 -0.459871
-27.7437 103.835 1236.02 0.228973 -0.44338 -0.866594
-31.4183 104.616 1241.76 -0.557739 -0.466445 -0.686554
0.00398079 136.848 1325.84 -0.425301 -0.580909 -0.69402
-13.4988 132.515 1304.58 -0.358621 -0.86095 -0.360771
-5.97432 137.224 1308.36 -0.457709 -0.0461923 -0.887901
-3.56226 136.161 1318.69 -0.542938 -0.343539 -0.766289
28.9643 134.588 1311.12 0.907639 -0.270171 0.321246
-3.92467 136.138 1318.34 -0.729873 -0.358551 -0.582002
32.9462 134.169 1294.93 0.492347 -0.669112 -0.556672
-28.7916 112.88 1253.18 0.190247 -0.47591 -0.858671
42.578 119.907 1267.42 0.557134 -0.644677 -0.523444
16.0242 136.99 1338.48 0.288111 -0.380191 -0.87889
-24.0393 125.092 1265.56 0.535825 0.214539 -0.816618
-27.7659 106.639 1240.04 0.635237 -0.358529 -0.684055
42.015 150.81 1289.17 0.85978 0.410452 -0.303822
28.8442 135.004 1302.13 0.514957 -0.3456 -0.784462
41.0192 132.64 1273.53 0.770001 0.379857 -0.512647
51.2911 134.566 1268.37 0.990229 0.0298556 -0.136216
56.538 135.089 1267.11 0.84867 0.363649 -0.384081
-23.9089 135.731 1290.36 -0.603351 -0.0609366 -0.795144
-3.37834 136.127 1314.75 -0.489052 -0.411209 -0.769243
27.7804 157.641 1312.86 0.13814 0.801702 -0.581543
29.7647 143.902 1297.65 0.382394 0.859081 -0.340227
26.0863 158.932 1314.03 0.0925855 0.922447 -0.374858
-29.2244 115.361 1264.45 -0.0593132 -0.797567 -0.600307
7.94504 145.453 1290.84 -0.667164 -0.0624603 -0.742288
-31.4089 108.46 1250.65 -0.138951 -0.653629 -0.74395
-29.9156 130.939 1275.55 -0.588393 0.0568985 -0.806571
12.2455 145.497 1293.85 -0.266474 0.0160096 -0.963709
-24.3546 101.123 1225.8 0.269379 -0.168919 -0.948104
-37.3606 148.645 1279.85 -0.74069 0.227608 -0.632117
16.8611 141.605 1307.13 -0.351278 0.0971106 -0.931221
47.3257 155.339 1282.91 0.546123 0.784685 -0.29329
22.4262 147.81 1315.81 0.486562 0.785207 -0.383023
-26.8956 124.101 1282.86 -0.493223 -0.864592 -0.0959717
17.7301 141.589 1306.2 0.0693879 0.109749 -0.991534
26.6058 158.805 1315.15 0.183862 0.954024 -0.236712
-10.4963 133.232 1305.18 -0.26489 -0.441401 -0.857321
-34.9394 113.395 1251.41 -0.575329 -0.0801069 -0.81399
34.9591 129.595 1276.53 0.625549 0.00231656 -0.780181
38.4786 129.47 1312.7 0.923768 -0.297994 -0.240525
38.0463 162.114 1312.78 0.711398 0.685642 -0.154295
55.8959 162.529 1277.6 0.460012 0.865835 -0.19677
-26.5651 119.798 1268.52 0.0523569 -0.913221 -0.404087
0.597398 135.739 1319.21 -0.311117 -0.47445 -0.823471
-24.3244 101.935 1227.97 0.240757 -0.201737 -0.949388
32.3582 138.566 1292.9 0.561791 0.0837512 -0.823029
-29.1265 115.536 1264.66 -0.278891 -0.788104 -0.548737
31.6878 164.491 1315.67 0.424296 0.891376 0.15944
29.534 159.374 1315.68 0.474123 0.877211 0.0755596
-16.1365 135.966 1294.06 -0.361782 -0.0855008 -0.928334
53.071 157.972 1278.93 0.593266 0.791151 -0.148712
-6.15585 136.061 1315.14 -0.481443 -0.404647 -0.777478
46.4862 135.028 1270.12 0.856016 0.39756 -0.330428
5.68729 136.009 1332.19 -0.622455 -0.57694 -0.528857
-34.4679 146.032 1282.92 -0.65659 0.132741 -0.742475
-38.9458 150.442 1278.43 -0.582333 0.459796 -0.67043
27.0123 158.961 1314.57 0.27841 0.892599 -0.35462
-23.9509 101.489 1226.78 0.479041 -0.0779165 -0.874328
35.4919 130.882 1314.69 0.605996 -0.563947 0.561011
1.37871 135.851 1320.52 -0.434332 -0.475508 -0.765015
-24.6287 124.661 1265.9 0.523619 -0.0499433 -0.850488
40.3284 131.441 1273.22 0.565008 0.117049 -0.816741
29.0407 161.142 1315.49 0.49341 0.860794 0.124821
7.00442 146.447 1285.19 -0.403624 0.146285 -0.903155
-25.9684 123.25 1274.75 0.0697656 -0.802392 -0.592705
-25.4531 130.175 1276.03 -0.304081 0.257406 -0.917211
14.7462 143.964 1303.75 -0.44139 0.0230535 -0.897019
42.2692 114.84 1257.62 0.250532 -0.605532 -0.755358
35.7753 130.711 1312.42 0.991621 -0.117201 -0.0543364
-28.3152 111.429 1256.21 0.49106 -0.788918 -0.369417
40.4003 124.782 1289.16 0.822212 -0.567926 0.037784
37.7571 129.365 1274.18 0.413136 -0.10745 -0.904308
-21.9103 129.977 1291.39 -0.361713 -0.731466 -0.578033
-23.261 124.198 1302.34 -0.325961 -0.811356 -0.485232
36.1234 122.939 1276.23 -0.181863 -0.890489 -0.41708
42.5626 119.555 1265.42 0.281974 -0.70317 -0.652719
-34.6368 147.723 1281.48 -0.524029 0.12076 -0.843096
4.36121 136.315 1323.21 -0.571462 -0.381212 -0.72671
40.8619 129.339 1312.12 0.908099 -0.14164 -0.394074
-32.3562 143.116 1287.9 -0.918498 0.238876 -0.315119
-28.7188 106.57 1247.83 0.294459 -0.40804 -0.864174
26.3421 158.971 1313.67 0.132575 0.875884 -0.463951
-26.966 122.449 1274.66 0.0787259 -0.84504 -0.528875
32.5059 158.977 1312.72 0.688842 0.557911 -0.462852
26.1519 158.351 1314.91 0.00852996 0.981908 -0.189169
1.4462 138.428 1332.23 -0.74308 -0.40882 -0.52981
17.8755 135.302 1313.75 0.176446 -0.295555 -0.93889
-16.2553 133.9 1292.56 -0.268386 -0.162274 -0.949545
55.3717 133.429 1268.05 0.997107 -0.0591298 0.0477615
28.047 134.655 1307.02 0.57025 -0.242158 -0.784968
-30.3195 146.128 1285.25 -0.337332 0.620375 -0.708055
3.23952 136.11 1322.95 -0.401164 -0.579591 -0.709325
31.7794 138.073 1292.06 0.516162 0.093102 -0.851416
-27.5818 116.928 1266.26 -0.100877 -0.869714 -0.483137
32.6316 160.847 1313.58 0.686217 0.696825 -0.208664
6.05998 135.89 1330.65 -0.0417133 -0.544446 -0.837758
-29.3523 105.572 1245.71 0.104643 -0.510095 -0.853729
52.7942 159.924 1279.48 0.568479 0.774325 -0.277945
40.2346 148.745 1288.34 0.819892 0.406797 -0.402857
39.398 121.453 1261.41 0.13972 -0.70967 -0.690541
32.3661 140.443 1293.69 0.645375 0.089085 -0.758654
49.1989 155.721 1282.24 0.633037 0.518726 -0.574619
38.6674 119.112 1266.8 0.013155 -0.716681 -0.697277
37.6182 125.519 1288.22 0.468603 -0.679927 -0.564013
42.2288 111.5 1249.99 0.129921 -0.615257 -0.777547
20.4758 141.407 1326.87 0.656716 -0.0483595 -0.752586
4.1965 151.871 1281.68 -0.508645 0.1833 -0.841238
-21.4923 133.417 1283.52 -0.117599 -0.0831024 -0.989578
22.6251 153.42 1316.33 0.287497 0.933277 -0.215268
50.9274 134.564 1267.97 0.994378 0.105813 -0.00395749
0.718612 135.795 1319.38 -0.379837 -0.476833 -0.792688
41.5794 133.321 1274.16 0.71863 0.601887 -0.348286
-5.17075 136.61 1318 -0.719216 -0.331637 -0.610528
-30.219 105.624 1247.54 -0.289072 -0.665772 -0.687885
38.879 150.74 1289.71 0.379138 0.806895 -0.452962
14.7063 136.13 1326.31 0.54888 -0.388328 -0.740225
17.3203 141.852 1306.07 -0.425621 0.200588 -0.88239
17.3104 136.924 1329.59 0.0884739 -0.35 -0.932562
16.5478 136.74 1334.49 0.438664 -0.392488 -0.80841
39.4148 150.217 1290.85 0.488057 0.83751 -0.245717
-28.7577 141.402 1287.5 -0.65051 0.285742 -0.703696
52.6839 159.727 1280.3 0.682409 0.662192 -0.309548
42.4434 108.787 1238.1 -0.0397857 0.00420182 -0.999199
42.2142 119.76 1261.69 0.493303 -0.251964 -0.832566
-18.4536 130.588 1305.44 -0.567102 -0.785616 0.247391
21.9931 147.878 1317.36 0.285749 0.944454 -0.162341
-29.7273 105.636 1249.22 0.0794074 -0.706169 -0.703577
-26.8591 124.404 1267.07 -0.20844 -0.339509 -0.917217
-26.9757 116.936 1263.87 -0.258191 -0.798718 -0.543495
56.7932 135.446 1265.45 0.520277 0.486827 -0.701649
2.8819 136.003 1321.84 -0.274921 -0.412805 -0.868338
-4.3882 136.697 1319.42 -0.597019 -0.315008 -0.737793
-26.4793 125.431 1267.3 0.216934 0.205153 -0.954386
-15.8757 131.831 1300.47 -0.330617 -0.464462 -0.821564
5.20973 152.57 1281.61 -0.287186 0.633533 -0.718442
56.3932 161.842 1277.93 0.736337 0.669021 -0.101087
7.53513 145.677 1285.85 -0.410572 0.142585 -0.900611
-7.23855 135.464 1306.07 -0.357803 -0.298939 -0.884654
33.9722 145.907 1293.34 0.624286 0.657027 -0.42259
45.7132 107.1 1235.91 0.548719 -0.153096 -0.821869
37.5048 130.865 1276.55 0.560391 -0.0995438 -0.822224
-23.0295 123.924 1271.38 -0.369038 -0.64263 -0.671444
-33.6085 131.251 1269.33 -0.476257 -0.068883 -0.876604
35.3488 161.39 1314.56 0.836477 0.545477 0.0525487
28.9386 134.491 1302.4 0.624751 -0.415405 -0.661154
-36.1821 147.645 1282.36 -0.541801 0.13152 -0.830153
31.8204 132.473 1310.98 0.830174 -0.0404063 0.556038
-29.5031 105.339 1245.06 -0.0240403 -0.497923 -0.866888
36.5698 159.984 1313.86 0.926913 0.367214 -0.0773675
48.7837 157.302 1283.3 0.253924 0.858177 -0.446156
35.7634 126.004 1290.09 0.903061 -0.387382 -0.185515
-26.1072 102.175 1227.95 0.542936 0.01251 -0.839681
-24.73 130.272 1277.02 -0.344567 -0.240046 -0.907553
-23.398 140.678 1292.29 -0.752271 0.17413 -0.635426
40.8394 122.392 1264.3 0.41221 -0.413787 -0.811704
14.3532 141.975 1303.51 -0.387602 0.152349 -0.90915
16.2616 141.578 1306.66 -0.325967 0.0461976 -0.944252
42.4993 105.008 1236.16 -0.0733858 -0.540795 -0.837947
-35.1498 146.259 1281.99 -0.683822 0.0466467 -0.728156
-28.6018 103.355 1235.99 0.250069 -0.549687 -0.797063
37.9356 129.169 1274.19 0.385648 -0.339214 -0.858026
40.4331 150.625 1288.57 0.861888 0.381252 -0.334358
-14.162 132.014 1302.02 -0.286425 -0.420707 -0.860794
-14.1374 132.128 1305.65 -0.306008 -0.947187 -0.0958941
39.492 102.647 1230.23 0.22214 -0.365414 -0.90395
28.6787 131.375 1288.19 0.447499 -0.527324 -0.72227
23.0637 154.653 1314.31 0.275124 0.895949 -0.348685
40.6375 102.718 1226.36 -0.0721696 0.137038 -0.987933
-35.3338 146.972 1284.08 -0.658852 0.391845 -0.642162
52.4546 159.248 1279.12 0.665145 0.722401 -0.188993
26.6367 159.268 1313.61 0.189462 0.94263 -0.274867
31.9152 142.699 1294.34 0.419953 0.641441 -0.642023
-32.7118 129.767 1270.82 -0.642679 -0.304699 -0.702938
-6.35369 136.941 1318.13 -0.738765 -0.347843 -0.577262
16.5459 142.4 1303.74 -0.538995 -0.00744894 -0.842276
15.8303 136.607 1335.35 0.40933 -0.258401 -0.87503
-23.5564 135.174 1286.11 -0.527576 -0.0128902 -0.84941
-25.4003 102.024 1231.79 0.265133 -0.171333 -0.948867
-23.9791 124.606 1275.83 -0.344799 -0.748515 -0.566426
33.6754 132.75 1312.17 0.858164 -0.353995 0.371809
-25.0646 128.502 1285.32 -0.34427 -0.562482 -0.751726
-28.4882 124.589 1273.74 -0.207124 -0.59891 -0.773567
1.88173 136.06 1324.41 -0.34962 -0.550173 -0.758337
40.2555 150.813 1289.17 0.961792 0.230566 -0.147633
-22.3784 124.222 1302.26 -0.112772 -0.745344 -0.657073
-26.3143 128.78 1274.18 -0.33434 -0.179599 -0.925182
16.1683 136.87 1336.96 0.312957 -0.510746 -0.800747
36.7815 148.034 1292.93 0.776426 0.338947 -0.531297
27.7073 135.766 1310.25 0.787897 -0.370322 0.492016
26.7529 158.647 1315.15 0.0238816 0.992355 -0.121081
9.9884 144.95 1289.98 -0.609584 -0.228431 -0.759096
30.1455 133.4 1313.46 0.752382 -0.437422 0.492527
27.5913 132.859 1299.6 0.487684 -0.435813 -0.75646
-23.9327 124.071 1303.43 -0.569693 -0.789318 -0.228968
38.9715 98.4938 1218.64 0.294629 -0.360866 -0.884855
39.9012 129.864 1276.17 0.807233 0.334494 -0.486301
-29.5063 109.647 1255.94 0.126573 -0.586656 -0.799884
16.8404 142.26 1304.32 -0.178163 -0.0168611 -0.983857
21.7105 146.013 1315.85 0.516271 0.749886 -0.413685
32.8532 159.193 1313.39 0.690191 0.663801 -0.288105
14.256 143.752 1300.03 -0.709872 -0.0185079 -0.704087
-31.6166 146.899 1285.04 -0.620892 0.408504 -0.669042
-27.749 130.99 1276 -0.624654 0.127282 -0.770459
22.0583 139.635 1320.71 0.649943 -0.146325 -0.745763
32.0897 159.343 1313.12 0.671771 0.705413 -0.22609
-27.9942 128.588 1279.93 0.065459 -0.635486 -0.769333
58.677 134.354 1265.47 0.797799 0.120689 -0.590721
-29.662 105.472 1246.59 0.154662 -0.652386 -0.741939
-26.392 132.886 1281.62 -0.499749 -0.0192443 -0.865956
-26.6593 126.14 1281.89 -0.638355 -0.769668 -0.0106523
31.8108 132.481 1295.81 0.598877 -0.627851 -0.497141
-27.1115 104.76 1238.33 0.166211 -0.635817 -0.753731
-16.2293 131.905 1306.13 -0.652074 -0.472008 -0.593303
39.7312 124.314 1289.59 0.973032 -0.197097 -0.11984
28.5264 135.074 1310.83 0.746739 -0.289381 0.598865
-9.83218 134.006 1307.82 -0.566821 -0.620836 -0.541551
-5.28897 139.553 1312.79 -0.44092 -0.461123 -0.770036
13.9118 147.703 1347.01 0.343218 -0.370548 -0.863074
-5.43501 135.888 1315 -0.508003 -0.464947 -0.725091
59.644 134.215 1268.28 0.999937 -0.0111059 0.00177089
45.7356 150.611 1288.35 0.902523 0.379961 -0.202686
-30.7531 118.13 1261.21 -0.283055 -0.438247 -0.853123
-14.1714 137.907 1298.37 -0.477921 -0.0221308 -0.878124
-32.0546 144.974 1284.19 -0.524557 0.325218 -0.786812
35.2357 161.503 1313.87 0.79829 0.600828 0.0417079
-25.2637 125.243 1264.95 -0.231612 0.11726 -0.965715
31.082 132.664 1296.75 0.669157 -0.553496 -0.495854
-1.12554 135.736 1319.97 -0.384052 -0.535943 -0.751844
-8.5928 134.339 1306.49 -0.434669 -0.348543 -0.83041
36.3519 132.001 1285.15 0.588865 -0.112971 -0.800297
54.61 161.258 1278.28 0.56449 0.793683 -0.226758
14.5856 143.063 1301.37 -0.375748 0.21069 -0.902454
-37.2214 148.637 1280.41 -0.532186 0.188773 -0.825314
12.5606 145.575 1294.94 -0.42514 0.150275 -0.892565
42.6891 118.975 1262.61 0.401871 -0.224965 -0.887632
35.7752 125.81 1289.92 0.505413 -0.595858 0.624109
28.6784 135.308 1310.71 0.533966 -0.550799 0.641483
15.8336 143.781 1304.27 -0.341049 0.0273646 -0.939647
-28.0781 113.066 1258.95 -0.0154929 -0.704477 -0.709558
-36.052 147.696 1281.57 -0.564591 0.468125 -0.679776
21.7821 149.982 1313.45 0.276824 0.774356 -0.568983
44.8146 135.12 1271.35 0.519986 0.678645 -0.518706
39.4447 124.094 1289.62 0.922488 -0.296604 -0.247068
53.5315 160.258 1278.68 0.567956 0.809323 -0.149741
25.6114 156.718 1316.33 0.112546 0.966712 -0.229786
48.2288 153.942 1283.67 0.347471 0.818595 -0.457346
44.607 151.394 1286.19 0.592912 0.574359 -0.564418
-35.3412 148.408 1281.25 -0.568674 0.0896856 -0.817659
46.1065 155.266 1283.35 0.674153 0.488697 -0.553799
41.2789 124.221 1288.98 0.926208 -0.374638 0.0422505
43.1826 132.551 1271.48 0.806714 0.308068 -0.504289
-24.4093 124.138 1275.49 0.230825 -0.614576 -0.754332
-42.3521 152.671 1276.4 -0.721755 0.33601 -0.605118
47.2241 152.774 1285.88 0.872851 0.31471 -0.372946
23.5894 142.807 1312.64 0.475091 -0.0917746 -0.875138
55.9754 133.695 1267.87 0.984849 0.025926 -0.171462
-35.1215 146.573 1281.48 -0.701144 0.100561 -0.705892
11.2201 144.149 1294.9 -0.810045 0.0932444 -0.578906
-23.0953 140.363 1292.45 -0.701326 0.2765 -0.657031
-25.6334 121.569 1271.25 -0.314002 -0.70844 -0.632073
11.2259 144.583 1293.19 -0.418713 0.166436 -0.892737
45.4939 132.903 1272.21 0.922293 0.210668 -0.32403
-1.39651 140.582 1318.41 -0.472326 -0.406513 -0.782084
-28.5872 112.362 1257.55 -0.0839987 -0.68876 -0.720106
-8.35353 135.311 1312.65 -0.56385 -0.440124 -0.698831
8.5409 145.169 1288.83 -0.438766 0.0124934 -0.898515
-11.8561 133.093 1305.58 -0.2215 -0.276218 -0.935223
39.872 127.733 1272.75 0.44642 -0.198846 -0.87245
41.8814 120.073 1261.26 0.117707 -0.398023 -0.909793
39.7743 101.838 1225.06 0.0815497 -0.0638053 -0.994625
23.9989 155.327 1313.46 0.362026 0.84797 -0.387149
38.0783 159.986 1313.04 0.939092 0.339963 -0.0503176
-30.0337 115.598 1263.54 -0.428397 -0.803214 -0.413913
-30.665 145.744 1284.35 -0.202001 0.503205 -0.840226
17.0151 141.279 1306.95 -0.491486 0.0460968 -0.869665
-27.0151 104.556 1238.64 0.582246 -0.197621 -0.788629
35.4211 160.215 1311.84 0.778801 0.593808 -0.20214
32.6397 166.075 1314.62 0.431867 0.898866 0.0743729
29.3031 140.419 1295.35 0.445601 -0.131987 -0.885448
32.5898 128.85 1289.04 0.478622 -0.563765 -0.673119
36.2307 148.09 1292.15 0.304274 0.786324 -0.537691
56.316 133.83 1268.04 0.995305 -0.0267103 -0.0930269
44.0206 131.553 1271.52 0.617577 -0.0339766 -0.785776
-29.5098 106.444 1241.43 0.528135 -0.498507 -0.687433
36.6378 126.723 1284.98 0.541481 -0.531718 -0.651209
-35.3178 113.412 1250.92 -0.293111 0.00622013 -0.956058
-26.5614 103.288 1234.8 0.467966 -0.550069 -0.691688
41.1157 130.459 1274.03 0.668235 -0.0215647 -0.743638
10.0123 145.374 1293.31 -0.72202 -0.0247938 -0.691428
3.46272 153.865 1279.3 -0.440142 0.530583 -0.724401
-23.4759 137.254 1292.74 -0.593549 0.174438 -0.785666
9.24635 147.058 1288.64 0.0656919 0.674835 -0.735039
3.27618 152.932 1280.17 -0.256092 0.483346 -0.837134
44.7366 152.631 1287.03 0.518401 0.840654 -0.156719
-2.60606 136.183 1316.37 -0.456359 -0.286186 -0.842516
-24.0856 123.212 1272.66 0.0100607 -0.705953 -0.708187
19.9865 135.912 1306.06 0.240884 -0.170368 -0.955484
42.2672 131.568 1272.34 0.650378 0.130463 -0.748324
-7.71685 135.729 1315.13 -0.340004 -0.492788 -0.800973
30.3672 162.209 1315.42 0.44189 0.896188 -0.0397632
47.6301 156.686 1283.02 0.42029 0.695058 -0.58331
51.0701 158.471 1282.22 0.665772 0.707762 -0.236263
-24.0472 124.385 1302.17 -0.559202 -0.80742 -0.188057
-24.6822 129.643 1276.19 -0.382716 -0.155627 -0.910664
16.2279 142.736 1302.95 -0.430458 -0.0745479 -0.899527
-12.2254 133.006 1301.14 -0.19932 -0.50338 -0.840762
42.1603 120.306 1262.43 0.441559 -0.306633 -0.843209
17.4792 140.892 1307.08 -0.0801675 0.12057 -0.989462
5.30502 136.029 1324.97 -0.334866 -0.362858 -0.869597
38.9026 99.7262 1224.13 0.242365 -0.443156 -0.86306
40.3822 130.147 1275.74 0.797498 0.526688 -0.294275
25.6134 133.853 1306.88 0.777234 -0.0245585 -0.628732
40.2225 150.607 1288.56 0.543453 0.60511 -0.581808
30.394 133.603 1311.92 0.775905 -0.174397 0.606264
18.8541 139.225 1337.65 0.362265 -0.185311 -0.913468
23.0192 142.964 1314.19 0.531453 -0.0284336 -0.84661
36.1544 126.79 1291.2 0.556967 -0.693645 0.456776
-21.2165 127.273 1304.12 -0.340056 -0.929406 -0.143411
-28.8865 142.03 1287.39 -0.648725 0.297421 -0.700498
22.0301 139.4 1320.19 0.548693 -0.216318 -0.807553
32.3733 144.664 1295.3 0.535173 0.729261 -0.426343
58.5874 134.361 1265.79 0.936606 0.0808581 -0.340928
35.7025 147.422 1293.2 0.507908 0.831327 -0.225666
-6.04133 135.383 1311.64 -0.589959 -0.542835 -0.597728
22.1044 138.801 1318.82 0.576636 -0.122963 -0.807695
12.578 143.694 1294.87 -0.523638 0.0733148 -0.84878
-16.4504 131.753 1306.73 -0.667087 -0.741188 -0.0750678
4.0918 152.294 1281.17 -0.414528 0.556539 -0.720021
-32.8128 144.145 1285.24 -0.723994 0.133954 -0.676674
45.8323 134.651 1269.49 0.687834 0.37886 -0.619152
22.4672 146.397 1317.91 0.241919 0.881718 -0.405029
29.6702 134.078 1313.13 0.803714 -0.19138 0.563398
22.5998 139.885 1300.21 0.344061 -0.162066 -0.924855
-34.0731 148.003 1283.11 -0.864473 0.160763 -0.476279
-29.3553 112.439 1257.84 -0.00232931 -0.857543 -0.514407
40.5738 102.177 1226.2 0.214557 -0.128268 -0.968252
41.7992 149.292 1288.44 0.792577 0.400592 -0.459725
39.5834 130.131 1312.16 0.94886 -0.212926 -0.233084
-21.5584 125.386 1303.23 -0.130394 -0.83597 -0.533059
36.3548 131.433 1313.97 0.893651 -0.158213 -0.419948
28.1079 132.378 1289.44 0.574349 -0.529763 -0.624078
-23.5406 124.136 1303.06 -0.488524 -0.668795 -0.560408
-30.9095 103.956 1238.67 0.0299694 -0.407052 -0.912913
2.71492 135.88 1325.35 -0.453068 -0.592038 -0.666499
26.4394 136.959 1310.98 0.641538 -0.2031 -0.739715
-28.8562 114.901 1263.54 -0.19002 -0.868006 -0.458756
-8.38855 134.306 1305.13 -0.235215 -0.403675 -0.88415
-32.588 146.097 1285.34 -0.568624 0.504204 -0.649958
-24.0475 100.797 1225.94 0.421431 -0.193659 -0.885941
13.8355 136.12 1327.24 0.196181 -0.252765 -0.94743
6.4068 136.002 1331.78 -0.411536 -0.519623 -0.748752
33.067 142.798 1297.02 0.614317 0.634643 -0.468875
24.5395 140.262 1298.96 0.339375 -0.160503 -0.926857
14.4093 142.705 1302.18 -0.259709 -0.125192 -0.957538
17.7389 141.75 1305.95 -0.120981 -0.054263 -0.991171
40.2952 130.377 1276.68 0.865887 0.430603 -0.2546
35.9958 126.74 1282.67 0.681365 -0.579529 -0.447088
-8.54605 134.349 1306.58 -0.167232 -0.302514 -0.93836
31.9941 144.257 1294.78 0.32199 0.773584 -0.545793
49.233 157.314 1281.69 0.587186 0.733167 -0.343043
32.0578 132.267 1313.7 0.666759 -0.454206 0.590872
27.9267 135.231 1304.9 0.581637 -0.32722 -0.744732
42.1394 104.153 1235.19 -0.0225183 -0.211778 -0.977058
-21.8414 135.936 1295.48 -0.610541 -0.0876918 -0.787115
-24.8309 125.561 1264.68 0.221961 0.00149634 -0.975054
17.8674 137.695 1333.85 0.321866 -0.38389 -0.865465
48.0367 156.658 1283.11 0.362822 0.842844 -0.397459
-34.8794 114.292 1251.3 -0.4334 -0.16598 -0.885785
-22.9383 126.263 1280.11 -0.0336798 -0.687266 -0.725624
42.2351 112.418 1251.58 0.145015 -0.769812 -0.621579
46.4255 150.946 1289.11 0.92821 0.354877 -0.111754
40.908 119.406 1268.69 0.343372 -0.717782 -0.60571
-24.5942 123.178 1270.13 -0.0835495 -0.556217 -0.826826
14.895 136.105 1324.05 0.191041 -0.329494 -0.924628
-34.703 149.169 1283.62 -0.235495 0.5269 -0.816651
40.0318 123.819 1290.14 0.878391 -0.477711 -0.0149086
45.376 150.338 1288.37 0.952016 0.237534 -0.192983
-29.3469 145.908 1285.02 -0.251422 0.509781 -0.822746
37.0965 127.439 1290.68 0.683052 -0.59668 0.421204
35.9656 147.852 1292.54 0.400874 0.837002 -0.372461
35.5711 160.069 1312.64 0.760964 0.617081 -0.200361
-25.7856 124.326 1276.3 0.228734 -0.772683 -0.59215
17.3822 137.008 1332.33 0.421706 -0.244213 -0.873226
44.652 111.074 1245.76 0.25265 -0.447597 -0.857802
22.2065 147.899 1316.73 0.395013 0.738349 -0.546632
-28.8472 106.986 1246.1 0.123123 -0.425852 -0.896376
32.2423 129.614 1291.12 0.474615 -0.520878 -0.709526
37.1743 132.565 1279.19 0.538604 0.079569 -0.838793
40.5075 119.303 1268.81 0.600335 -0.615539 -0.510598
36.1905 147.423 1293.3 0.572849 0.802755 -0.165615
-25.3294 125.138 1277.82 -0.0888473 -0.864032 -0.495534
-36.3142 147.643 1281.74 -0.75858 0.147726 -0.634612
-26.5164 118.924 1268.49 -0.327294 -0.814322 -0.479331
52.7642 159.803 1280 0.389403 0.806317 -0.445217
35.2116 134.082 1285.46 0.544066 -0.0269446 -0.838609
48.762 133.434 1268.45 0.997199 -0.0227763 0.0712353
-29.2572 131.178 1277.07 -0.376666 -0.252539 -0.891261
-1.32016 135.898 1320.76 -0.54847 -0.560483 -0.620516
-31.062 111.3 1251.9 0.258614 -0.692218 -0.673761
35.7142 160.267 1312.73 0.889154 0.397836 0.226124
-29.1575 111.843 1257.05 0.369441 -0.833958 -0.409913
-26.1927 123.932 1265.26 -0.216268 -0.290097 -0.93224
40.7542 101.667 1226.72 -0.0831972 -0.393573 -0.915521
13.3214 143.025 1299.23 0.0140065 -0.0131526 -0.999815
35.9994 147.491 1293.23 0.487353 0.722795 -0.489954
-26.1204 104.322 1235.36 -0.123221 -0.653122 -0.74716
40.8823 124.395 1290.38 0.811797 -0.566734 0.140708
7.05993 137.051 1336.07 -0.549074 -0.479412 -0.684603
38.2764 148.792 1291.7 0.592346 0.744961 -0.306853
36.3125 128.141 1286.05 0.69616 -0.352384 -0.625449
27.8332 139.196 1294.25 0.408388 -0.0543149 -0.911191
35.8328 133.407 1282.4 0.548567 -0.113197 -0.828409
-7.68409 135.385 1313.29 -0.512196 -0.472487 -0.717225
40.8692 124.227 1290.04 0.953572 -0.294539 0.062827
-32.5987 146.251 1285 -0.586573 0.513779 -0.62607
7.04702 148.764 1285.28 -0.342183 0.353177 -0.870733
-33.2094 113.545 1253.05 -0.269874 -0.338995 -0.90125
5.28223 150.817 1284.05 -0.717725 0.367582 -0.5914
-29.2436 141.994 1287.6 -0.59496 0.299919 -0.745702
43.5424 133.415 1270.34 0.889935 0.356231 -0.284807
-30.7959 104.492 1241.47 -0.269134 -0.621624 -0.73563
16.7091 141.531 1306.95 -0.579024 0.159058 -0.799645
6.81522 146.749 1286.29 -0.643361 0.24759 -0.724421
20.7969 140.982 1324.63 0.728503 -0.0468526 -0.683439
-25.6579 123.891 1266.37 0.19243 0.0295971 -0.980864
-33.2426 114.072 1253.28 -0.281019 -0.0500173 -0.958398
36.5032 148.122 1292.73 0.673131 0.682877 -0.283854
-33.4835 113.799 1253.08 -0.184875 -0.161745 -0.969361
-4.36672 135.712 1313.9 -0.474398 -0.404955 -0.781638
39.8525 131.722 1273.73 0.90566 0.223456 -0.360344
34.4738 128.405 1287.91 0.415034 -0.559648 -0.717315
39.5325 119.748 1270.05 0.543585 -0.702704 -0.459045
15.8334 142.683 1303.77 -0.309611 -0.152064 -0.938625
24.6062 138.15 1297.1 0.289388 -0.129083 -0.948468
35.5238 146.518 1295.55 0.651386 0.676106 -0.34435
41.9593 121.141 1264.07 0.310992 -0.353334 -0.882292
14.6626 143.268 1302.9 -0.481152 0.101907 -0.870694
27.883 160.018 1314.46 0.359829 0.917908 -0.167237
-33.5497 112.732 1254.3 -0.494631 -0.34042 -0.799659
20.1459 139.311 1327.83 0.667334 -0.198567 -0.7178
27.8578 133.014 1312.85 0.508948 -0.607928 0.609422
26.0828 136.566 1313.14 0.559993 -0.31957 0.764384
31.2858 130.204 1292.89 0.472622 -0.450273 -0.75755
55.414 133.73 1265.59 0.781756 0.140454 -0.607561
30.1053 134.231 1311.9 0.732309 -0.188461 0.654374
29.4687 161.24 1316.08 0.420663 0.823506 0.380633
35.3884 146.526 1292.36 0.508793 0.74728 -0.427436
33.9175 126.657 1280.97 0.352225 -0.538014 -0.765819
25.5979 137.976 1312.85 0.725522 -0.0908241 -0.682179
-31.6735 112.154 1256.51 -0.385541 -0.450609 -0.805176
25.6254 157.532 1314.05 0.132614 0.888808 -0.438672
11.5451 143.434 1293.26 -0.364713 -0.0133641 -0.931024
0.0509709 135.422 1320.84 -0.417223 -0.464535 -0.78111
46.002 135.074 1270.21 0.678872 0.445103 -0.583966
50.0404 134.85 1268.14 0.992405 -0.0934358 0.0800136
-34.055 146.933 1282 -0.526088 0.267171 -0.807373
43.895 109.913 1241.97 0.293141 -0.283217 -0.913158
-23.9167 128.53 1287.49 -0.465788 -0.689874 -0.554179
27.2861 138.558 1294.31 0.575361 -0.0688916 -0.814993
10.5993 146.086 1290.82 -0.401859 0.162329 -0.901198
-6.70285 134.973 1310.37 -0.358264 -0.337968 -0.870301
16.7646 141.722 1306.88 -0.446741 0.0703908 -0.89189
-2.00404 136.2 1321.65 -0.254801 -0.116383 -0.959964
36.1875 127.717 1286.33 0.638543 -0.481817 -0.600096
55.5857 133.725 1268.26 0.999521 -0.0215324 0.022222
41.8483 128.808 1310.73 0.896535 -0.391161 -0.207888
34.0514 132.691 1312.6 0.794146 -0.384692 0.470473
16.585 136.519 1330.84 0.308806 -0.407402 -0.859455
-24.4694 137.892 1291.42 -0.724167 0.143783 -0.674469
22.7432 143.097 1314.16 0.536753 0.108337 -0.836755
-28.6768 109.142 1252.92 0.20513 -0.694363 -0.689769
-23.7574 134.35 1291.61 -0.484455 -0.235404 -0.842549
38.6798 125.197 1289.57 0.96498 -0.259133 -0.0407809
45.6891 154.463 1285.07 0.340189 0.875951 -0.342025
13.091 143.206 1299.87 -0.330913 0.109008 -0.937344
-28.7345 108.503 1248.56 0.0698765 -0.605738 -0.79259
27.9998 134.891 1311.05 0.780569 -0.291176 0.553109
24.9018 141.682 1309.13 0.579987 0.0712057 -0.811508
41.2624 122.298 1264.1 0.37787 0.0405895 -0.924969
36.7242 131.205 1314.51 0.92345 -0.115663 0.365872
28.7545 160.202 1315.13 0.313247 0.948449 -0.0481663
-9.6645 133.803 1304.94 -0.43275 -0.339818 -0.835016
-16.9907 130.609 1305.23 -0.553024 -0.762203 -0.336469
43.6249 133.253 1274.25 0.830568 0.488112 -0.268147
21.0692 151.343 1317 0.331082 0.887564 -0.320335
-15.1567 131.936 1304.68 -0.587784 -0.6287 -0.509161
-24.6721 125.786 1267.58 0.427656 0.14662 -0.891972
-13.4825 132.333 1303.85 -0.501681 -0.62049 -0.60275
-34.2615 149.853 1283.13 -0.616741 0.471744 -0.63015
26.8514 136.429 1310.41 0.788028 -0.293812 0.541005
37.6018 126.246 1290.97 0.994717 -0.0946742 0.0396898
45.0949 154.133 1285.76 0.464015 0.77084 -0.436458
-15.1342 136.333 1295.05 -0.316594 -0.134416 -0.938989
1.03898 137.265 1329.4 -0.491481 -0.571721 -0.656949
43.2463 133.893 1273.13 0.813844 0.520201 -0.258939
-33.8988 114.114 1252.69 -0.489976 -0.214678 -0.844888
-33.7299 103.036 1238.67 -0.501034 -0.494102 -0.710513
47.0263 152.67 1284.34 0.318994 0.879966 -0.351999
-24.6796 125.307 1267.98 0.20821 0.19117 -0.95922
-23.0337 136.584 1293.65 -0.728007 0.132873 -0.67257
37.1569 129.653 1312.95 0.862778 -0.375889 -0.338115
-15.7254 131.541 1299.51 -0.392055 -0.58793 -0.707553
41.4105 132.276 1275.5 0.65464 0.618008 -0.43533
18.5897 137.489 1327.16 0.517242 -0.363384 -0.774863
15.3369 143.396 1304.2 -0.323335 0.109542 -0.939923
16.8026 137.126 1336.62 0.13151 -0.600967 -0.78838
-24.7625 122.88 1270.23 -0.215361 -0.601989 -0.768914
-23.2024 125.802 1302.56 -0.676218 -0.72123 -0.150186
15.8353 143.402 1300.32 -0.323619 -0.145245 -0.934973
-25.1428 100.179 1228.6 0.591409 0.0605484 -0.804095
57.6538 162.72 1275.61 0.683165 0.531268 -0.501039
35.6488 129.996 1287.98 0.61848 -0.424346 -0.661372
-29.4855 142.739 1286.22 -0.641549 0.178527 -0.746018
-22.1776 124.665 1302.25 -0.165119 -0.641587 -0.749067
16.2463 142.787 1305.42 -0.437938 0.134189 -0.888934
3.14982 136.032 1323.63 -0.295982 -0.506773 -0.809676
-23.3521 136.708 1292.24 -0.687641 -0.0806071 -0.721562
19.981 141.636 1334.93 0.335159 -0.303202 -0.892041
58.9073 134.757 1263.92 0.797127 0.0907975 -0.596946
47.2081 133.369 1269.6 0.986126 -0.0630571 -0.153556
-6.37448 136.852 1317.82 -0.642598 -0.343203 -0.68504
31.8065 164.009 1315.85 0.524052 0.851673 0.00467864
-26.9358 105.076 1238.99 0.801573 -0.186147 -0.568182
12.5076 142.521 1323.37 0.0669792 0.183675 -0.980702
40.1526 132.358 1274.57 0.500214 0.601032 -0.623335
-33.2046 131.126 1272.87 -0.624691 0.124324 -0.770911
13.0589 142.548 1301.42 -0.481491 0.0377282 -0.875639
36.4194 131.417 1315.1 0.856188 -0.0853512 0.509565
50.9495 155.903 1281.64 0.462198 0.837168 -0.292443
-25.1178 124.192 1266.72 0.233703 -0.0653218 -0.970111
35.8213 160.063 1312.75 0.628444 0.770379 -0.107584
54.6432 161.425 1276.85 0.53916 0.732078 -0.416375
-22.0079 128.616 1278.91 -0.0516825 -0.696404 -0.715786
15.4949 142.532 1304.74 -0.325752 0.0982983 -0.940332
37.2697 126.469 1280 0.682917 -0.56481 -0.463264
-20.7997 125.943 1304.11 -0.610051 -0.792356 -0.00297358
-24.9959 125.896 1266.98 0.459957 -0.141034 -0.876669
-39.0708 149.811 1278.2 -0.667658 0.0749306 -0.740688
34.1488 134.651 1285.23 0.394112 -0.0968206 -0.913948
-28.9007 103.969 1241.87 0.174867 -0.476557 -0.861577
32.882 138.428 1294.05 0.51506 0.160208 -0.842049
-21.5817 128.164 1285.23 -0.0892423 -0.449621 -0.88875
4.28898 156.748 1276.26 0.0442941 0.523813 -0.850681
18.9169 137.75 1328.38 0.664375 -0.0924472 -0.74166
-28.3914 109.796 1251.81 0.28401 -0.559875 -0.778381
6.74707 148.421 1285.32 -0.297756 0.20507 -0.932356
34.9448 161.637 1313.56 0.791687 0.544744 -0.27656
46.0089 135.041 1270.84 0.71637 0.500908 -0.485702
15.1477 136.396 1336.64 0.41241 -0.349626 -0.841237
-30.2182 112.633 1259.09 -0.23385 -0.730499 -0.641627
34.7893 159.91 1312.44 0.656649 0.560921 -0.504162
-30.9013 129.137 1272.51 -0.583467 -0.027906 -0.811657
37.1243 126.84 1281.75 0.555734 -0.581192 -0.594454
-24.3219 100.812 1225.67 0.317096 -0.204672 -0.926045
-36.3509 112.577 1249.23 -0.430561 -0.0496414 -0.901195
35.2689 161.575 1314.47 0.832914 0.553247 0.0131046
39.9958 150.978 1289.33 0.744246 0.663303 -0.078276
-31.9659 146.166 1285.66 -0.608245 0.530094 -0.590795
-26.398 139.151 1291.92 -0.84614 0.0588058 -0.529707
8.01713 145.275 1290.26 -0.160332 0.160094 -0.973994
3.98551 136.029 1323.09 -0.375305 -0.50069 -0.780036
-35.6743 112.257 1249.65 -0.43522 -0.331088 -0.837236
-16.9075 129.766 1304.55 -0.29032 -0.955699 0.0485144
-26.2316 139.18 1289.65 -0.693318 0.127419 -0.709277
42.9646 114.817 1257.16 0.476948 -0.672195 -0.566282
-35.044 130.557 1269.33 -0.666732 -0.169048 -0.725872
-34.1725 147.937 1283.07 -0.209359 0.662365 -0.719334
30.2578 163.768 1314.98 0.547226 0.834693 0.0618929
42.9548 103.779 1231.96 -0.0355562 -0.418417 -0.907559
7.28582 148.413 1285.15 -0.107022 0.610383 -0.784843
59.9306 133.81 1263.92 0.926211 -0.140617 -0.349799
6.11715 136.972 1324.28 -0.241919 -0.478433 -0.844143
35.7423 131.85 1286.91 0.433801 -0.144284 -0.889381
61.0666 134.945 1262.56 0.881049 0.269397 -0.388816
42.3373 118.924 1259.53 0.578424 -0.257784 -0.773933
33.575 133.793 1282.87 0.30712 0.116218 -0.944548
27.1903 134.513 1305.18 0.406246 -0.526007 -0.747182
29.3308 136.943 1304.04 0.680388 -0.256528 -0.686488
45.484 135.157 1270.98 0.940746 0.334422 0.0562015
42.8735 110.167 1240.79 0.357543 -0.159981 -0.920092
29.781 162.21 1315.45 0.487742 0.872673 0.0234438
-26.1304 102.361 1236.67 0.28153 -0.429674 -0.857975
-32.9903 104.108 1239.36 -0.266934 -0.355037 -0.895932
44.2041 152.547 1286.34 0.435 0.603184 -0.668539
32.1404 139.831 1294.39 0.551132 0.0508283 -0.832869
35.6577 129.748 1288.36 0.592188 -0.492326 -0.637909
-13.3896 132.558 1306.86 -0.588309 -0.456279 -0.667609
-30.504 112.028 1257.2 -0.310705 -0.744546 -0.590859
19.0597 135.79 1308.82 0.166054 -0.558946 -0.812407
-31.6613 129.519 1271.5 -0.641529 -0.0320833 -0.766428
36.5146 129.274 1313.46 0.894625 0.0570766 -0.443157
6.54972 147.931 1287.25 -0.429221 0.331282 -0.840251
41.9056 131.7 1275.3 0.923477 0.303675 -0.234462
-25.8273 123.965 1275.84 -0.0854698 -0.84839 -0.522426
15.855 143.031 1302.54 -0.329749 -0.168545 -0.928901
32.0253 128.971 1286.94 0.423806 -0.473626 -0.772053
0.875433 136.658 1326.96 -0.710535 -0.433864 -0.553987
45.8637 152.03 1286.35 0.86888 0.345043 -0.354956
13.8286 142.684 1301.63 -0.271835 -0.284113 -0.919449
-12.7466 132.535 1304.55 -0.454009 -0.603493 -0.655494
-27.9038 128.709 1273.47 -0.41587 -0.190904 -0.889161
45.827 134.995 1271.3 0.902156 0.429246 -0.0431615
44.2765 133.982 1270.55 0.659486 0.455812 -0.597756
32.766 159.065 1313.38 0.694981 0.532572 -0.483083
-4.22288 136.335 1318.35 -0.638072 -0.271044 -0.720694
30.8876 129.66 1290.65 0.581669 -0.634006 -0.509606
31.7183 132.054 1313.63 0.881434 0.0468622 0.469977
-26.4439 130.179 1275.4 -0.379814 0.260243 -0.887702
11.6793 143.307 1327.33 0.353569 -0.136081 -0.925457
44.2908 110.286 1243.64 0.122965 -0.391443 -0.911949
-31.8631 110.089 1252.64 -0.150924 -0.639876 -0.753512
15.5686 143.072 1300.51 -0.415457 -0.0472121 -0.908387
-29.3166 124.227 1270.03 -0.366546 -0.360431 -0.857749
-20.6371 136.633 1289.67 -0.542305 -0.0455751 -0.838945
16.2134 141.555 1305.58 -0.436874 0.138052 -0.888866
47.5565 152.601 1286.54 0.799033 0.455044 -0.393042
21.3247 138.334 1320.94 0.561752 -0.269593 -0.782147
-34.0985 103.502 1237.7 -0.3086 -0.102177 -0.945688
52.4434 159.826 1279.67 0.48124 0.855399 -0.191575
-22.8592 124.215 1302.26 -0.269479 -0.592994 -0.758775
15.2058 136.088 1325.26 0.344888 -0.377378 -0.859441
-25.7661 125.79 1267.12 -0.013992 0.265499 -0.96401
-28.1793 144.121 1289.01 -0.773366 0.235544 -0.588578
-30.2146 105.608 1248.77 -0.139462 -0.719497 -0.680349
15.9887 142.833 1304.42 -0.181266 -0.208134 -0.961157
-15.4664 132.08 1303.31 -0.581243 -0.348347 -0.735399
1.86915 136.279 1326.93 -0.56851 -0.337572 -0.750227
-12.2039 137.839 1300.87 -0.394993 -0.0203915 -0.918458
40.4193 130.407 1273.21 0.554779 -0.0256604 -0.831602
32.0113 136.364 1289.41 0.348791 -0.388789 -0.852753
-20.6714 129.033 1284.6 -0.106219 -0.521299 -0.846738
-31.9326 128.926 1271.89 -0.517343 -0.237986 -0.822021
33.1786 128.599 1289.12 0.166316 -0.673539 -0.720198
26.418 158.795 1314.89 0.0254141 0.997092 -0.0718381
27.7041 135.159 1310.57 0.808032 -0.350036 0.473877
-27.2774 104.955 1241.95 0.520958 -0.286348 -0.804119
42.4809 133.62 1273.22 0.635888 0.551647 -0.539752
30.992 163.236 1316.32 0.409723 0.903008 -0.129245
-10.5741 141.275 1311.35 -0.503432 0.195041 -0.841734
33.2348 133.204 1282.04 0.286289 -0.147275 -0.946757
-37.5643 150.332 1282.29 -0.631405 0.458526 -0.625365
11.2205 145.062 1297.48 -0.33528 0.00432229 -0.942108
-31.0079 107.933 1250.33 0.0671988 -0.60703 -0.791833
-18.3878 129.83 1305.22 -0.806435 -0.590993 -0.0197456
-28.9589 114.777 1263.21 -0.255381 -0.823639 -0.50636
25.1783 154.191 1313.13 0.465748 0.756804 -0.458613
51.9704 159.466 1279.46 0.486232 0.841265 -0.236329
-21.7683 132.908 1282.98 -0.398925 0.00624586 -0.916962
42.7905 104.939 1236.19 -0.0117934 -0.744309 -0.667731
14.9672 144.758 1324.33 0.331728 0.472385 -0.816584
7.78698 147.681 1287.54 -0.259003 0.17979 -0.948996
-30.0463 112.506 1257.86 -0.130295 -0.853091 -0.505232
-29.548 105.721 1247.48 -0.0451704 -0.639676 -0.767317
16.2129 140.882 1306.64 -0.0228988 -0.0587223 -0.998012
35.5375 161.47 1314.49 0.820118 0.571219 0.0333969
22.5136 148.029 1316.96 0.258389 0.857446 -0.444996
-35.8714 111.989 1250.34 -0.442301 -0.365731 -0.818908
58.4253 133.543 1264.34 0.881888 0.365914 -0.29729
-31.4489 143.316 1285.38 -0.590218 0.242319 -0.770015
17.0309 140.298 1307.08 -0.181525 0.0543028 -0.981886
-36.9517 129.72 1268.13 -0.604837 -0.369214 -0.705587
42.6493 116.177 1259.91 0.335572 -0.639009 -0.692141
-30.912 129.146 1272.35 -0.545446 -0.0748912 -0.834793
36.2521 147.451 1293.27 0.483353 0.830106 -0.278017
31.6501 159.723 1313.25 0.692126 0.686602 -0.222573
33.954 130.565 1277.23 0.293415 -0.14718 -0.944588
27.7131 157.684 1315.6 0.367586 0.926624 -0.0790485
-28.3722 111.583 1253.24 -0.0137669 -0.4701 -0.882506
46.5961 134.209 1270.48 0.910342 0.401833 -0.0990298
20.028 142.949 1327.76 0.602741 -0.160756 -0.781576
7.22457 136.703 1327.29 -0.253967 -0.356078 -0.899283
-24.6157 124.075 1274.97 0.10704 -0.758793 -0.642476
34.6523 143.076 1295.52 0.571899 0.729514 -0.375154
22.6553 150.069 1316.82 0.422173 0.887255 -0.185872
34.5608 132.077 1314.05 0.869649 -0.133445 0.475293
6.82337 149.358 1285.66 -0.717976 0.360269 -0.595581
22.5815 140.47 1301.04 0.23832 -0.263395 -0.934787
43.818 109.278 1240.82 0.241484 -0.183383 -0.95292
-5.98474 136.447 1316.65 -0.584017 -0.355873 -0.729575
5.9206 136.42 1325.17 -0.397928 -0.341912 -0.851322
34.6768 145.288 1292.34 0.674283 0.662241 -0.326772
-26.433 101.062 1231.53 0.293618 -0.396965 -0.869602
30.6813 143.402 1298.23 0.583173 0.391263 -0.711914
-22.6072 125.973 1302.66 -0.206775 -0.768651 -0.605326
14.1711 136.158 1335.82 0.444634 -0.346709 -0.82589
23.9836 134.379 1310.86 0.50255 -0.304068 -0.809312
-29.7742 143.082 1286.11 -0.726046 0.323087 -0.607019
40.0105 131 1277.04 0.672219 0.698293 -0.245984
37.3219 161.229 1311.58 0.91326 0.407304 0.00768044
-27.0063 101.91 1234.57 0.528212 -0.491313 -0.692534
-32.2015 103.984 1240.13 -0.545367 -0.628583 -0.554489
45.3057 135.319 1270.57 0.674363 0.626812 -0.390309
6.57953 136.093 1331.17 -0.489722 -0.550523 -0.676089
38.816 116.921 1262.23 0.287229 -0.586333 -0.757438
38.7244 118.638 1267.79 0.146982 -0.692586 -0.706202
38.3343 132.429 1277.88 0.501956 0.170581 -0.847905
2.88006 157.301 1276.23 -0.167998 0.403228 -0.899546
-27.7082 129.954 1274.25 -0.320252 -0.0028875 -0.947328
6.50814 135.979 1328.61 -0.374754 -0.507705 -0.775755
36.2893 147.554 1293.42 0.447897 0.873903 -0.188896
-27.8419 121.821 1273.27 0.0466778 -0.790383 -0.610832
37.8373 125.341 1290.19 0.878224 -0.310126 -0.364067
-31.0439 112.926 1258.47 -0.258686 -0.702893 -0.662588
-34.7583 112.69 1251.14 -0.591998 -0.123935 -0.796353
40.743 149.492 1288.18 0.423118 0.384806 -0.820302
9.43991 144.403 1289.55 -0.477214 -0.245435 -0.843818
32.4118 141.225 1297.81 0.779896 0.313131 -0.541951
-33.808 104.52 1239.02 -0.592581 -0.416222 -0.689642
-25.3901 138.979 1289.96 -0.703938 0.0418076 -0.70903
-22.5671 124.58 1302.18 -0.13298 -0.69518 -0.706429
40.6953 130.059 1273.93 0.481017 -0.268971 -0.834432
-40.6686 152.56 1275.99 -0.555439 0.392541 -0.733075
30.6964 161.621 1316.75 0.499833 0.861126 0.0928892
-25.4668 121.531 1270.17 -0.207683 -0.752436 -0.625066
34.169 145.751 1296.11 0.691454 0.707289 -0.147083
34.3666 127.884 1285 0.561663 -0.641986 -0.521908
-20.0913 130.431 1283.28 0.0199528 -0.550304 -0.834726
-29.094 131.011 1275.12 -0.606066 0.138349 -0.78329
24.1882 133.405 1306.24 0.560655 0.328491 -0.760105
45.4238 135.24 1271.07 0.718273 0.664791 -0.205271
-28.3979 130.26 1273.82 -0.208737 -0.0148571 -0.977859
36.0779 130.879 1277.03 0.363789 -0.137328 -0.921303
32.1522 139.539 1296.86 0.50677 0.172081 -0.844732
15.4047 136.524 1338.38 0.302847 -0.396304 -0.866733
20.6324 142.418 1327.86 0.65962 -0.215275 -0.72011
40.0865 150 1290.39 0.806062 0.390754 -0.444495
4.75306 155.949 1277.2 0.17364 0.569052 -0.80376
-33.8969 148.291 1282.35 -0.68707 0.258872 -0.678911
46.0144 152.17 1286 0.815563 0.382142 -0.43454
20.7504 140.946 1326.27 0.611825 -0.235792 -0.755031
15.6283 136.085 1330.9 0.592043 -0.317691 -0.740647
32.056 159.347 1313.07 0.855077 0.518379 0.0112576
16.8364 137.061 1335.16 0.494964 -0.193699 -0.847049
37.2438 125.495 1278.8 0.56388 -0.665324 -0.489268
48.0207 133.908 1269.26 0.954904 0.291051 -0.058717
14.373 144.073 1302.29 -0.434031 0.0371787 -0.90013
-35.9753 130.558 1271.12 -0.951449 -0.306772 -0.0252027
-27.1579 104.06 1236.83 0.581355 -0.552322 -0.597467
27.6929 135.19 1306.55 0.736396 -0.145377 -0.660746
42.6861 107.234 1242.86 0.0846346 -0.799294 -0.594951
34.7243 130.933 1313.85 0.774516 -0.177877 0.60703
-7.55658 134.963 1311.06 -0.413043 -0.314175 -0.854804
-28.3445 112.075 1251.9 -0.135528 -0.509208 -0.849905
-26.0932 128.022 1272.65 -0.0211863 -0.778994 -0.626673
32.1286 163.617 1315.96 0.171122 0.970831 0.16794
26.9914 153.724 1315.49 0.3255 0.936688 -0.129096
-33.8157 113.005 1252.27 -0.378305 -0.400626 -0.834496
42.1995 103.01 1230.26 0.0202407 -0.188075 -0.981946
29.8422 138.41 1292.33 0.376801 0.0113665 -0.926225
33.545 145.178 1294.08 0.609507 0.591454 -0.527905
40.5134 123.719 1266.03 0.00558943 -0.403928 -0.914774
49.9806 157.988 1281.95 0.517746 0.728923 -0.447896
37.0672 147.543 1292.94 0.628917 0.631615 -0.453349
17.2989 136.85 1328.73 0.347628 -0.351188 -0.86938
15.3015 136.027 1333.61 0.352289 -0.331909 -0.875059
33.6636 159.336 1314.64 0.885103 0.419255 0.202033
48.9396 157.227 1282.72 0.566745 0.684742 -0.458179
-26.4826 101.811 1233.54 0.221754 -0.566396 -0.793738
-34.8419 131.236 1269.28 -0.627308 0.164377 -0.761226
28.928 160.256 1315.63 0.349281 0.929861 0.115588
36.1518 125.858 1291.99 0.299325 -0.577942 0.759202
31.177 128.832 1288.3 0.596684 0.187847 -0.78018
-23.4273 137.079 1290.32 -0.613426 -0.0839309 -0.78528
28.5921 132.714 1298.5 0.432375 -0.525544 -0.732704
-26.7253 139.309 1290.04 -0.749868 0.104176 -0.653334
40.6251 150.683 1288.08 0.949283 0.152509 -0.274961
-28.5156 125.286 1275.16 -0.0146993 -0.74553 -0.666309
-31.344 110.785 1254.76 -0.206719 -0.5955 -0.776303
7.27895 149.136 1285.15 -0.515619 0.264459 -0.814984
-16.8487 132.123 1303.32 -0.642031 -0.269155 -0.71788
-31.9616 109.749 1251.15 -0.174569 -0.529554 -0.830119
34.4436 128.132 1291.38 0.614603 -0.580482 0.534138
2.44347 156.297 1276.93 -0.360743 0.621014 -0.695849
47.7783 134.086 1269.38 0.758055 0.338942 -0.557199
-28.1859 114.01 1261.32 0.133638 -0.751496 -0.646061
46.1997 152.522 1285.86 0.729026 0.428352 -0.533887
28.0196 158.244 1315.95 0.549146 0.83319 0.0650675
-4.29539 136.648 1319.38 -0.694646 -0.361457 -0.621945
-30.2126 112.059 1257.03 0.184157 -0.657198 -0.730874
-27.6235 110.665 1254.43 0.567328 -0.618634 -0.543536
-34.6709 113.039 1251.03 -0.327062 -0.220743 -0.91886
-22.2165 127.28 1282.98 -0.123639 -0.678232 -0.724372
-36.0659 130.633 1271.01 -0.629917 -0.163881 -0.759176
-22.8433 138.111 1291.09 -0.597969 0.107569 -0.794268
38.798 98.2952 1219.12 0.315049 -0.546129 -0.7762
5.02099 153.131 1280.37 -0.0639353 0.467427 -0.881717
2.48392 136.877 1320.07 -0.313076 -0.404641 -0.859214
-25.7999 124.081 1275.89 -0.0105472 -0.85821 -0.51319
36.6548 126.641 1281.04 0.478251 -0.609173 -0.632601
-7.69357 136.054 1314.92 -0.693666 -0.421845 -0.583845
40.4533 125.044 1290.43 0.95147 -0.305342 0.038363
31.8735 159.736 1313.02 0.685504 0.606071 -0.403438
41.7345 121 1268.61 0.496288 -0.642567 -0.583786
24.6836 134.282 1308.63 0.335925 -0.485824 -0.806926
23.5121 142.941 1309.88 0.488236 -0.076867 -0.86932
33.6098 134.268 1284.48 0.333048 0.0490872 -0.941631
6.40364 137.768 1338.43 -0.832209 -0.3787 -0.404987
-14.8719 131.988 1303.2 -0.481954 -0.463122 -0.7438
-18.2815 130.385 1292.93 -0.0749182 -0.695261 -0.714843
6.83704 147.105 1285.48 -0.474289 0.208571 -0.855306
15.0257 136.115 1331.66 0.330351 -0.52482 -0.784495
-27.6537 111.214 1254.66 0.557054 -0.729072 -0.397674
-24.6667 131.096 1277.48 0.0730759 -0.361727 -0.929416
-29.5399 125.03 1271.26 -0.3748 -0.454668 -0.807962
36.1727 126.832 1291.47 0.473409 -0.458456 0.752132
20.8802 137.03 1317.42 0.436045 -0.463771 -0.771221
26.5917 137.942 1310.25 0.618899 -0.28479 -0.732024
3.78813 137.149 1333.32 -0.579707 -0.446898 -0.681338
20.2321 137.707 1321.65 0.704112 -0.100861 -0.702889
52.3382 159.732 1280.25 0.750609 0.654528 -0.0904426
28.9985 139.983 1294.41 0.365439 -0.101761 -0.925256
-8.05979 135.704 1313.61 -0.506618 -0.446019 -0.737838
42.8257 116.531 1260.73 0.238397 -0.630959 -0.73828
-27.7527 110.972 1253.18 0.302308 -0.586547 -0.75138
34.0803 134.758 1285.66 0.591586 -0.184033 -0.784957
-29.137 124.886 1270.98 -0.276058 -0.361011 -0.890766
14.3735 142.728 1302.42 -0.437311 0.0803665 -0.895712
43.3676 117.29 1254.55 0.537054 -0.130217 -0.833437
31.6458 159.736 1312.55 0.734441 0.534473 -0.418252
-25.8036 139.221 1289.21 -0.528026 0.0685492 -0.846457
-31.3179 115.207 1260.79 -0.220412 -0.659699 -0.718481
-19.5204 134.233 1287.28 -0.369476 -0.0778746 -0.925971
21.6699 148.103 1317.56 0.247096 0.790547 -0.560339
-32.8729 114.569 1254.14 -0.448067 -0.359095 -0.81871
3.34265 153.102 1281.55 -0.296468 0.623611 -0.723337
31.1455 138.683 1292.46 0.413547 -0.0956356 -0.905446
-30.1962 107.37 1251.14 -0.345897 -0.746715 -0.568131
17.4944 136.692 1326.48 0.49226 -0.398048 -0.774105
-26.1763 124.59 1282.53 -0.22565 -0.944014 -0.240663
20.572 140.096 1325.12 0.6806 -0.117292 -0.723205
-25.9169 101.17 1230.69 0.0374274 -0.524104 -0.850831
-20.8873 131.75 1283.18 -0.229828 -0.268748 -0.93539
30.8718 143.259 1296.05 0.263551 0.701723 -0.661911
36.7063 130.572 1312.45 0.81703 -0.248374 -0.520358
-32.1652 143.508 1285.75 -0.71555 0.223171 -0.661953
27.7296 135.572 1310.21 0.859681 -0.354936 0.36738
-33.9396 131.777 1269.97 -0.626881 0.145589 -0.765391
37.0253 127.01 1291.03 0.814135 -0.580197 0.0235857
45.1341 152.772 1286.89 0.38693 0.839069 -0.382425
48.2071 155.387 1281.51 0.59732 0.561507 -0.572642
20.5263 136.292 1303.55 0.65138 0.126489 -0.748134
-26.4307 104.024 1237.56 0.0704517 -0.615016 -0.785361
-26.2741 102.047 1233.22 0.270003 -0.196087 -0.942681
-28.8757 106.508 1245.95 0.114359 -0.662478 -0.740301
34.5083 132.313 1291.37 0.682788 -0.49531 -0.537092
13.9843 143.264 1300.99 -0.345893 0.167675 -0.92317
30.1153 162.375 1314.71 0.5158 0.856607 -0.0132094
43.3221 107.626 1236.09 0.296372 -0.230714 -0.926787
15.4678 142.389 1306.85 -0.417278 0.184445 -0.889865
44.2405 152.453 1285.93 0.626419 0.716194 -0.307677
41.2779 150.462 1290.58 0.601432 0.673301 -0.430054
26.9709 132.546 1299.77 0.63858 -0.398133 -0.658563
41.624 120.141 1261.04 0.427303 -0.305292 -0.851005
-25.125 126.399 1270.94 0.0420167 -0.176706 -0.983366
40.1716 150.831 1289.17 0.688967 0.627085 -0.363439
4.71968 153.672 1281.5 -0.447964 0.439176 -0.778751
-32.0251 129.517 1271.25 -0.608333 -0.340469 -0.716946
9.06536 136.85 1337.71 -0.25693 -0.54352 -0.799108
58.3413 133.758 1265.04 0.787386 0.105966 -0.607285
13.957 143.348 1300.36 -0.513293 -0.198365 -0.834974
39.8533 118.085 1255.81 0.579164 -0.303208 -0.756726
32.7401 141.855 1297.22 0.466203 0.684208 -0.560816
19.9354 139.231 1327.32 0.659397 -0.289422 -0.693852
29.541 132.371 1285.33 0.280894 -0.21011 -0.936457
-41.7758 151.626 1276.3 -0.705607 0.250377 -0.662895
-34.1048 131.37 1269.52 -0.604682 0.112524 -0.788478
-26.4492 140.749 1289.31 -0.382286 0.682395 -0.623053
37.8565 148.251 1290.39 0.588777 0.637838 -0.496493
-30.6392 107.612 1250.91 -0.0556429 -0.755 -0.653359
36.3985 131.719 1285.64 0.575793 0.0711879 -0.81449
43.3189 117.268 1265.96 0.518997 -0.684586 -0.511844
7.90437 146.23 1285.19 -0.293741 0.154187 -0.943368
-22.4056 130.282 1290.64 -0.30332 -0.625239 -0.719078
-19.8404 137.658 1292.45 -0.335317 -0.0784558 -0.938833
29.9958 162.277 1315.82 0.547616 0.834163 0.0654941
50.817 159.024 1281.22 0.561691 0.705062 -0.432887
32.4934 134.489 1285.1 0.667814 -0.0629937 -0.741658
37.7295 131.446 1276.56 0.549024 0.00947481 -0.835753
32.3371 139.349 1296.91 0.61536 0.301359 -0.728365
-16.9967 131.713 1300.64 -0.393948 -0.625828 -0.67316
-21.7323 128.134 1283.88 -0.0658927 -0.664384 -0.744481
27.288 136.468 1309.38 0.809309 -0.415049 0.415636
32.8651 145.908 1295.72 0.478186 0.732993 -0.483797
21.356 147.961 1317.64 0.392214 0.838272 -0.378772
-23.2068 139.767 1292.09 -0.669499 0.327004 -0.666962
-23.8472 124.368 1303.44 -0.753436 -0.61661 -0.228313
41.5017 102.319 1230.9 -0.157499 -0.684072 -0.712208
44.4936 151.38 1286 0.59721 0.570714 -0.563584
39.6954 129.355 1273.56 0.484259 -0.205149 -0.850533
14.3755 141.799 1301.88 -0.320267 0.20891 -0.924005
41.6583 120.283 1268.81 0.614303 -0.56773 -0.54801
-28.2635 139.664 1290.02 -0.86207 0.0335394 -0.505679
43.8375 149.582 1288 0.625233 0.684226 -0.375392
15.0871 143.588 1300.64 -0.299879 0.021035 -0.953745
52.4563 133.791 1267.36 0.96308 0.244387 0.112925
46.4953 134.195 1270.78 0.971798 0.235687 -0.00773924
-30.6986 107.243 1249.83 -0.153639 -0.634555 -0.757453
-32.4092 144.096 1285.2 -0.576295 0.325022 -0.74983
-23.263 126.769 1282.46 -0.359662 -0.695711 -0.621796
-19.6293 132.312 1286.23 -0.268233 -0.337355 -0.902354
-34.1804 113.29 1252.09 -0.309752 -0.285464 -0.906953
33.3293 132.286 1314.06 0.723003 -0.104114 0.682955
